X Y Z R G B
-2.418472538541787564e+00 2.342814332314940629e+00 3.976134453532088830e+00 1.360000000000000000e+02 1.770000000000000000e+02 9.700000000000000000e+01
4.812032665815764443e-02 -1.096844303311560465e+00 1.381230965161550639e+00 1.240000000000000000e+02 1.660000000000000000e+02 9.200000000000000000e+01
-6.290021862218429793e-02 -2.004640307789988363e+00 1.073470500309790632e+00 9.600000000000000000e+01 1.130000000000000000e+02 4.000000000000000000e+01
-1.238549392875126998e+00 -7.121373429850220704e-01 4.676886395548960906e-01 1.290000000000000000e+02 1.630000000000000000e+02 1.160000000000000000e+02
1.830872806993314172e-01 4.761649899101859096e-01 3.766593124489712174e+00 1.290000000000000000e+02 1.810000000000000000e+02 8.000000000000000000e+01
-4.631999711356036276e-01 -1.457635545023507007e+00 1.553022422594683150e+00 1.460000000000000000e+02 1.810000000000000000e+02 7.400000000000000000e+01
7.905025809319682351e-02 6.384014120576491091e-01 5.001607307357818222e+00 1.150000000000000000e+02 1.660000000000000000e+02 4.600000000000000000e+01
-7.937667795253356973e-01 7.978464782928109678e-01 5.199701989157670567e+00 1.630000000000000000e+02 1.810000000000000000e+02 1.260000000000000000e+02
-2.330130510330056914e+00 1.571319646550410010e+00 6.554578615446929213e+00 1.270000000000000000e+02 1.670000000000000000e+02 3.900000000000000000e+01
-1.917474127635379499e+00 4.342487955905685482e+00 3.521599959102752919e+00 1.580000000000000000e+02 1.710000000000000000e+02 1.450000000000000000e+02
-3.185706065023520273e-01 -1.376778079576520319e+00 7.414568592529043878e-01 1.470000000000000000e+02 1.790000000000000000e+02 6.500000000000000000e+01
1.402045960468293051e-01 -1.320541830856950760e+00 1.702868978070637196e+00 1.110000000000000000e+02 1.550000000000000000e+02 7.000000000000000000e+01
-1.513529243464519780e+00 2.001281465610268651e+00 2.263153166088029078e+00 1.250000000000000000e+02 1.580000000000000000e+02 1.070000000000000000e+02
-3.723324521299599121e-01 1.852684870203972434e+00 1.938948706451881776e+00 2.300000000000000000e+01 4.700000000000000000e+01 1.900000000000000000e+01
-5.805878774466889658e-02 -1.581396173089569590e+00 1.232153807631291231e+00 1.290000000000000000e+02 1.630000000000000000e+02 1.020000000000000000e+02
-1.588323434962940484e+00 2.179333015982220789e-01 2.023016763249894989e+00 2.000000000000000000e+01 2.000000000000000000e+01 2.200000000000000000e+01
-3.906961222625680574e-01 -1.947177096507724636e+00 3.516030005801827674e+00 1.230000000000000000e+02 1.650000000000000000e+02 8.700000000000000000e+01
-1.576820580526821836e+00 1.155953712595243488e+00 5.796920602217441321e+00 1.330000000000000000e+02 1.780000000000000000e+02 5.400000000000000000e+01
-5.428355935115396491e-01 2.910915340785105165e-01 -4.024776271443736841e-01 1.380000000000000000e+02 1.610000000000000000e+02 1.080000000000000000e+02
6.760873034231593137e-02 -8.358877320677976508e-01 2.993012580925705102e+00 1.090000000000000000e+02 1.590000000000000000e+02 3.600000000000000000e+01
-2.947060023933320561e-01 -1.615189026105434911e+00 1.805822196254748713e+00 1.260000000000000000e+02 1.630000000000000000e+02 4.500000000000000000e+01
-2.366088586667683957e-01 5.872673398423398083e-01 2.220027613824102630e-01 8.700000000000000000e+01 1.160000000000000000e+02 6.700000000000000000e+01
-1.258860908961805469e+00 -1.153379653639770158e-01 2.584489584651707417e-01 2.400000000000000000e+01 2.800000000000000000e+01 3.100000000000000000e+01
1.307415775926376866e-01 7.206494493709532101e-01 1.062941555448896624e-01 1.400000000000000000e+01 1.600000000000000000e+01 1.800000000000000000e+01
-4.169175419774756586e-01 -2.091757812568552366e-01 -1.946540617719413543e-02 1.200000000000000000e+01 2.200000000000000000e+01 8.000000000000000000e+00
-3.315685883702496284e+00 6.129644834075174131e+00 4.157713574879028151e+00 1.490000000000000000e+02 1.710000000000000000e+02 1.000000000000000000e+02
-1.106624301389712572e+00 -7.307055247471599957e-01 1.827046268427793052e+00 1.310000000000000000e+02 1.720000000000000000e+02 9.500000000000000000e+01
-1.576503600902861013e+00 1.171745870116389643e+00 6.246836028610490921e+00 1.530000000000000000e+02 1.880000000000000000e+02 4.400000000000000000e+01
-1.577945314078372130e+00 1.997917503938905215e+00 6.749541964203555011e+00 1.490000000000000000e+02 1.890000000000000000e+02 7.400000000000000000e+01
-3.210207147920850712e+00 5.680506471463474760e+00 4.132788137051328192e+00 1.600000000000000000e+02 1.790000000000000000e+02 1.140000000000000000e+02
-1.452875918797803312e+00 2.174264129575453897e+00 3.401673642652351059e+00 1.310000000000000000e+02 1.750000000000000000e+02 5.900000000000000000e+01
-3.418421804929779872e-01 -1.108480103708683995e+00 3.073021416922816940e+00 1.360000000000000000e+02 1.770000000000000000e+02 5.700000000000000000e+01
-3.335532142532899869e+00 6.031026913990018556e+00 3.751337763089744648e+00 6.900000000000000000e+01 8.200000000000000000e+01 5.100000000000000000e+01
1.720240860612700096e-01 -9.791367638180186184e-01 1.450861626666851700e+00 8.900000000000000000e+01 1.420000000000000000e+02 7.100000000000000000e+01
-3.374831049016820739e+00 6.392053330674113631e+00 4.344246621901534766e+00 1.450000000000000000e+02 1.760000000000000000e+02 1.000000000000000000e+02
-3.290696546041926407e+00 5.948185846558320833e+00 4.300681436643172262e+00 1.260000000000000000e+02 1.480000000000000000e+02 8.400000000000000000e+01
5.207731844791504278e-02 9.002373297011474484e-01 3.363565781878756211e-01 3.100000000000000000e+01 3.800000000000000000e+01 3.300000000000000000e+01
-2.750828676269988726e+00 9.127626618740514175e-01 1.545282287302079061e+00 5.000000000000000000e+00 2.000000000000000000e+01 2.000000000000000000e+00
-6.629715410831149569e-01 1.082146215999345573e+00 1.563722642594855605e+00 1.190000000000000000e+02 1.650000000000000000e+02 8.200000000000000000e+01
-2.445517043855594430e+00 1.342898302417199652e+00 1.718282829282584911e+00 1.170000000000000000e+02 1.550000000000000000e+02 1.070000000000000000e+02
-3.449190700208827565e+00 5.349985658087670792e+00 3.911938226219075609e+00 1.170000000000000000e+02 1.380000000000000000e+02 9.500000000000000000e+01
-1.498371045191295048e+00 2.583295831775643592e+00 7.002180701707630739e+00 1.170000000000000000e+02 1.690000000000000000e+02 8.700000000000000000e+01
-2.235776322675331773e+00 2.000805996174327639e+00 6.746208692678433039e+00 1.230000000000000000e+02 1.700000000000000000e+02 6.100000000000000000e+01
-1.846918097912793044e+00 2.136820998606883570e+00 6.874095014525899217e+00 1.270000000000000000e+02 1.700000000000000000e+02 7.500000000000000000e+01
1.773409595711050446e-01 -1.071497110504744832e+00 5.716234331498869503e-01 1.040000000000000000e+02 1.540000000000000000e+02 1.000000000000000000e+02
-7.566611061472999777e-01 -5.726305792153627561e-01 1.426166271123278095e+00 1.240000000000000000e+02 1.610000000000000000e+02 1.110000000000000000e+02
-5.768278386652911927e-01 -8.786119269083195737e-01 1.802327888573634018e+00 1.450000000000000000e+02 1.800000000000000000e+02 2.200000000000000000e+01
-1.366548182717024051e+00 1.122007462455420157e+00 1.400353821060187576e+00 1.140000000000000000e+02 1.510000000000000000e+02 8.000000000000000000e+01
-9.683240758234153978e-01 4.706845070967271005e-01 4.924555875706158048e-01 1.230000000000000000e+02 1.520000000000000000e+02 9.000000000000000000e+01
-1.803393198497049710e-02 -1.726332278363494677e+00 1.680297809504813777e+00 1.390000000000000000e+02 1.750000000000000000e+02 1.030000000000000000e+02
-2.921239800820091048e+00 5.827942550483958151e+00 3.798790920813351679e+00 8.300000000000000000e+01 9.800000000000000000e+01 7.100000000000000000e+01
-1.683209299247200308e+00 2.458144631843262928e+00 6.242380596681448957e+00 1.460000000000000000e+02 1.850000000000000000e+02 7.900000000000000000e+01
-8.640314002785580705e-01 -3.980528585579513057e-01 -4.076078938436207832e-01 1.340000000000000000e+02 1.620000000000000000e+02 8.500000000000000000e+01
-1.463473882983211016e+00 1.281927998126522805e+00 3.473612551601978904e+00 1.340000000000000000e+02 1.770000000000000000e+02 4.000000000000000000e+01
-1.516259272691583337e+00 2.223148734687662831e+00 5.984660160639688087e+00 1.490000000000000000e+02 1.870000000000000000e+02 8.800000000000000000e+01
-2.606485601114457484e+00 4.215373605151545355e+00 3.829316975284595692e+00 1.060000000000000000e+02 1.490000000000000000e+02 7.000000000000000000e+01
8.103386007790848444e-02 1.892349056437202595e-02 3.575934383685801965e+00 1.140000000000000000e+02 1.700000000000000000e+02 4.000000000000000000e+01
-1.428571628087105028e+00 1.418576933003378615e+00 5.924218986634535611e+00 1.360000000000000000e+02 1.800000000000000000e+02 7.400000000000000000e+01
-1.972652115783901650e+00 2.107204953877993781e+00 6.742292603214580460e+00 1.320000000000000000e+02 1.720000000000000000e+02 6.100000000000000000e+01
1.506440972238778653e-01 -1.155197073173225730e+00 5.339630588317308968e-01 1.150000000000000000e+02 1.580000000000000000e+02 9.500000000000000000e+01
3.802337575966611982e-02 1.366797054339590790e-02 3.088759886790759079e+00 1.040000000000000000e+02 1.630000000000000000e+02 3.700000000000000000e+01
-1.284514842409294477e+00 1.111593531932968171e+00 9.021928146872513210e-01 8.000000000000000000e+00 2.400000000000000000e+01 6.000000000000000000e+00
-1.299698638140736939e+00 2.325549825079286315e+00 2.956865458647963685e+00 1.190000000000000000e+02 1.550000000000000000e+02 9.300000000000000000e+01
2.365245344745664502e-02 -1.787425289631889624e+00 1.124865291348223995e+00 8.400000000000000000e+01 1.040000000000000000e+02 7.000000000000000000e+01
-2.476078881161101197e+00 3.761409170137260727e+00 3.863618507423031811e+00 1.100000000000000000e+02 1.480000000000000000e+02 5.200000000000000000e+01
-2.898637942108027055e+00 5.346550157551403615e+00 3.904284988266305767e+00 1.100000000000000000e+02 1.570000000000000000e+02 1.020000000000000000e+02
-1.560532529210403307e+00 2.334373791597534442e+00 7.092194471771755993e+00 1.200000000000000000e+02 1.730000000000000000e+02 8.700000000000000000e+01
-1.747318629220379060e+00 3.190033670483199746e+00 3.580387269270832284e+00 9.900000000000000000e+01 1.480000000000000000e+02 3.800000000000000000e+01
-1.371006187793697650e+00 2.335590541980562485e+00 6.072922930543619202e+00 1.440000000000000000e+02 1.830000000000000000e+02 7.400000000000000000e+01
-1.197448291314575503e-01 -9.077167461706274754e-01 2.028262071091205154e+00 1.320000000000000000e+02 1.750000000000000000e+02 1.060000000000000000e+02
-1.687892267116356537e+00 4.249644447143742232e-01 1.170263281418594037e+00 2.900000000000000000e+01 5.100000000000000000e+01 2.400000000000000000e+01
2.425443329495939049e-01 -2.107578167499169375e+00 2.254735622877587442e+00 8.700000000000000000e+01 1.010000000000000000e+02 9.900000000000000000e+01
-3.533143715864777712e-01 8.314041831401487448e-01 4.526206622705305271e+00 1.450000000000000000e+02 1.870000000000000000e+02 3.600000000000000000e+01
-2.190938179840346833e-01 -6.895917182701738479e-01 6.434217839100977443e-01 1.120000000000000000e+02 1.300000000000000000e+02 7.500000000000000000e+01
-1.573170329377737708e+00 2.597963255745239231e+00 2.589333535069612946e+00 1.200000000000000000e+02 1.620000000000000000e+02 9.400000000000000000e+01
-1.919360593296969730e+00 2.809370599286252990e+00 3.313247263444797142e+00 1.340000000000000000e+02 1.780000000000000000e+02 4.000000000000000000e+01
-6.175991216673414330e-01 1.206003953584908528e+00 1.190106993904986421e+00 5.200000000000000000e+01 7.600000000000000000e+01 3.900000000000000000e+01
-9.075250466720170828e-02 -8.884225883290906012e-01 2.802962228715119242e+00 1.320000000000000000e+02 1.780000000000000000e+02 9.100000000000000000e+01
-2.452587463869635886e+00 2.245459184430362409e+00 6.885470069296276918e+00 1.280000000000000000e+02 1.690000000000000000e+02 4.700000000000000000e+01
-6.861715494052161857e-01 -6.238362170991970101e-01 -3.185757259939955288e-01 1.200000000000000000e+01 2.900000000000000000e+01 1.200000000000000000e+01
-1.003154738247375333e+00 1.235967641280377727e+00 1.551176859258998730e+00 1.110000000000000000e+02 1.540000000000000000e+02 7.100000000000000000e+01
-2.301889705796174912e+00 1.013369276631941318e+00 6.230744796284326092e+00 1.380000000000000000e+02 1.610000000000000000e+02 6.000000000000000000e+01
-1.443346427363109585e+00 1.215006861078089972e+00 3.431637330347820480e+00 1.340000000000000000e+02 1.760000000000000000e+02 3.800000000000000000e+01
-2.116238551517414912e+00 1.898778146207501294e+00 6.491241283370699833e+00 1.320000000000000000e+02 1.780000000000000000e+02 5.100000000000000000e+01
-9.519081980376352670e-01 1.475493109181176710e+00 5.349571568944210043e+00 1.450000000000000000e+02 1.880000000000000000e+02 5.000000000000000000e+01
-1.487681037370788273e+00 1.323220718774821281e+00 1.061065275163351140e+00 1.000000000000000000e+01 2.100000000000000000e+01 1.400000000000000000e+01
-5.245690328984317086e-01 6.702209020720898414e-01 3.079061693364418817e-01 9.300000000000000000e+01 1.210000000000000000e+02 7.400000000000000000e+01
-7.039677600740267271e-01 -8.035902530770261398e-02 -3.228675754230341255e-01 3.200000000000000000e+01 4.700000000000000000e+01 3.200000000000000000e+01
-2.212320715021749873e+00 4.079210351890297126e+00 3.918742807918349502e+00 1.170000000000000000e+02 1.660000000000000000e+02 9.900000000000000000e+01
-1.241192497958734986e+00 1.312275111622834167e+00 5.233653358789137400e+00 1.540000000000000000e+02 1.940000000000000000e+02 7.100000000000000000e+01
-1.985931487427569642e-01 -1.276989430925886237e+00 2.816673647928432000e+00 1.140000000000000000e+02 1.640000000000000000e+02 9.100000000000000000e+01
-2.155787964644793941e+00 2.067394821927490689e+00 6.717970434488561793e+00 1.320000000000000000e+02 1.730000000000000000e+02 5.300000000000000000e+01
-1.102943386898009859e+00 7.128121777552279825e-01 3.585085649222161108e-01 1.290000000000000000e+02 1.610000000000000000e+02 1.070000000000000000e+02
-5.396890360114889318e-02 -2.095052835326265406e+00 1.973881624690606573e+00 2.000000000000000000e+01 2.600000000000000000e+01 2.000000000000000000e+01
-7.666302573800513054e-01 2.162285805703394459e+00 2.522826540771882620e+00 1.070000000000000000e+02 1.500000000000000000e+02 8.200000000000000000e+01
-1.046891198645016674e+00 -6.035860813049984674e-01 3.354874868535997035e+00 1.520000000000000000e+02 1.910000000000000000e+02 6.200000000000000000e+01
-1.350382811574702080e+00 -2.228923199618118023e-01 3.275264790011036986e+00 1.300000000000000000e+01 2.600000000000000000e+01 5.000000000000000000e+00
-8.477126856195205118e-01 1.141332283639575840e+00 5.180300509616968085e+00 1.470000000000000000e+02 1.890000000000000000e+02 5.100000000000000000e+01
-1.525568920825438157e+00 1.215840185660276074e+00 6.200944717892480362e+00 1.500000000000000000e+02 1.870000000000000000e+02 4.800000000000000000e+01
-4.008186438156561282e-01 7.798457559944704798e-01 4.387737668343740793e+00 1.490000000000000000e+02 1.890000000000000000e+02 3.900000000000000000e+01
-1.644038219232641262e+00 -2.462099157699872976e-01 1.153177688354251496e+00 1.190000000000000000e+02 1.600000000000000000e+02 9.600000000000000000e+01
1.164729110951931018e-01 5.422732267357646130e-01 2.763498908818939545e-02 8.000000000000000000e+00 1.900000000000000000e+01 1.300000000000000000e+01
-7.767501789818857805e-02 1.027648182112672837e+00 4.622511175854490340e+00 1.450000000000000000e+02 1.840000000000000000e+02 4.400000000000000000e+01
-4.160024395470987013e-01 5.556063396398793763e-01 4.698391744922566282e+00 1.410000000000000000e+02 1.810000000000000000e+02 3.500000000000000000e+01
-5.360156801409561300e-01 6.341274674475523287e-01 4.333258343384645273e-02 1.800000000000000000e+01 3.800000000000000000e+01 1.400000000000000000e+01
-6.414688452680049613e-01 1.264412957443789232e+00 5.201683044798371292e+00 1.460000000000000000e+02 1.870000000000000000e+02 4.800000000000000000e+01
1.660528289441820793e-01 -1.639150766537576187e+00 3.054361191525580388e+00 1.060000000000000000e+02 1.570000000000000000e+02 9.300000000000000000e+01
-1.998970671821930667e+00 4.244685509191015726e-01 5.494267406557964861e+00 1.380000000000000000e+02 1.860000000000000000e+02 6.100000000000000000e+01
-1.562853535178406972e+00 2.399830325177977342e-01 2.000067261571251809e+00 2.000000000000000000e+01 2.000000000000000000e+01 2.200000000000000000e+01
-2.553457424205524684e-01 -1.751835361031036931e-01 5.183166057952668382e-01 1.800000000000000000e+01 2.800000000000000000e+01 3.000000000000000000e+01
-2.300856989076102810e+00 1.425079893553622856e+00 6.880927713223781161e+00 1.370000000000000000e+02 1.640000000000000000e+02 5.300000000000000000e+01
-4.765893180369337734e-01 2.363473491368198953e+00 2.024478900784737689e+00 2.600000000000000000e+01 2.900000000000000000e+01 3.400000000000000000e+01
-1.479634134633889708e+00 8.289911335370457879e-01 1.536253809154301431e+00 3.000000000000000000e+01 3.500000000000000000e+01 3.200000000000000000e+01
-2.459632340032702036e+00 1.891513426743596016e+00 2.736595792606806743e+00 1.070000000000000000e+02 1.330000000000000000e+02 9.600000000000000000e+01
-1.399932066081072346e+00 3.420160019762676917e-01 1.084357300316930006e+00 2.200000000000000000e+01 2.400000000000000000e+01 2.600000000000000000e+01
-4.048778914201783818e-01 2.014282267219113187e+00 2.021917600352941324e+00 1.300000000000000000e+01 3.100000000000000000e+01 1.200000000000000000e+01
-4.238346184748016388e-01 -1.995294850018249910e+00 1.043854428777279741e+00 2.600000000000000000e+01 3.900000000000000000e+01 6.000000000000000000e+00
-1.863901435162370834e+00 1.642903273501425065e+00 2.072895755903902515e+00 1.160000000000000000e+02 1.480000000000000000e+02 8.700000000000000000e+01
-1.011641300782331276e+00 1.708014603244815133e+00 2.140167055459305079e+00 1.150000000000000000e+02 1.590000000000000000e+02 7.500000000000000000e+01
-1.104109022775465743e+00 -2.447477514315236080e-01 3.744791353869584061e+00 1.480000000000000000e+02 1.890000000000000000e+02 8.200000000000000000e+01
3.217147248728762232e-01 1.333885155940731426e+00 3.283326997615623744e-01 1.170000000000000000e+02 1.600000000000000000e+02 7.100000000000000000e+01
-1.686951567227761961e+00 1.126948602803689442e-01 4.201585500778064031e+00 1.100000000000000000e+01 3.100000000000000000e+01 0.000000000000000000e+00
3.584932064472855506e-01 -1.311124807416687243e+00 1.990392065651875875e+00 1.160000000000000000e+02 1.600000000000000000e+02 6.100000000000000000e+01
3.684930478262768427e-01 -4.488597389696342144e-01 2.757679279786812376e+00 1.460000000000000000e+02 1.850000000000000000e+02 3.300000000000000000e+01
-1.638813362554284003e+00 9.151143579882954349e-01 1.876736081123580702e+00 3.700000000000000000e+01 4.600000000000000000e+01 3.300000000000000000e+01
-2.900365944761257975e+00 5.619168073043265821e+00 3.983335246359503312e+00 1.120000000000000000e+02 1.630000000000000000e+02 1.090000000000000000e+02
2.757134925044463780e-01 -1.698132376155519152e+00 5.492362982470189170e-01 2.200000000000000000e+01 3.100000000000000000e+01 2.000000000000000000e+01
-3.146854457369690383e+00 5.629929646532295884e+00 4.045900607342406197e+00 1.340000000000000000e+02 1.670000000000000000e+02 1.070000000000000000e+02
-2.280959588936505966e+00 3.145090698685817365e+00 3.198331079863556692e+00 1.290000000000000000e+02 1.620000000000000000e+02 1.140000000000000000e+02
-1.341078282932490762e+00 1.144057193374995895e+00 1.377404346185165940e+00 1.120000000000000000e+02 1.510000000000000000e+02 7.700000000000000000e+01
3.460138960919310613e-01 -1.938741648478340851e+00 1.916426079243997771e+00 5.300000000000000000e+01 6.500000000000000000e+01 4.600000000000000000e+01
-2.140512152081873509e+00 8.583208887882152194e-01 1.410149150809649088e+00 1.080000000000000000e+02 1.380000000000000000e+02 8.300000000000000000e+01
-1.771806953594033285e+00 1.598839621300157443e+00 5.788899270135138941e+00 1.440000000000000000e+02 1.650000000000000000e+02 1.030000000000000000e+02
-1.680852510444934111e+00 1.498192104216361509e+00 1.955990850846306861e+00 1.290000000000000000e+02 1.580000000000000000e+02 7.900000000000000000e+01
-9.278877576751310384e-04 -5.067421588870022475e-01 1.604251084789102721e+00 1.460000000000000000e+02 1.800000000000000000e+02 7.900000000000000000e+01
-1.207517232428944265e+00 -2.305711285691779688e-01 2.485265849120859016e+00 1.470000000000000000e+02 1.800000000000000000e+02 1.130000000000000000e+02
-1.816770376554368349e+00 2.394572124794884349e+00 3.390505619051892516e+00 1.330000000000000000e+02 1.760000000000000000e+02 3.900000000000000000e+01
-1.097948585700157631e+00 -1.193355914434286680e+00 3.202068228352474843e+00 1.170000000000000000e+02 1.570000000000000000e+02 7.800000000000000000e+01
-2.605483574540625291e+00 -7.679339051029134833e-01 2.553104634943680562e+00 1.510000000000000000e+02 1.760000000000000000e+02 4.600000000000000000e+01
-7.237424532359056917e-01 -7.152456785212839563e-01 1.036065725323115139e+00 1.220000000000000000e+02 1.650000000000000000e+02 1.130000000000000000e+02
-2.440266616522640319e+00 1.247347815542399818e+00 1.596094260401784259e+00 1.230000000000000000e+02 1.590000000000000000e+02 9.100000000000000000e+01
-1.519988862559331633e-01 1.066001296019976730e+00 8.845346426674679519e-01 1.200000000000000000e+01 2.200000000000000000e+01 1.600000000000000000e+01
-1.793411878420287042e+00 1.411874580315248151e+00 1.168936609385146541e+00 1.900000000000000000e+01 3.200000000000000000e+01 2.300000000000000000e+01
-5.167726636086124037e-01 -1.095167441967522359e+00 1.226486718007244514e+00 1.370000000000000000e+02 1.730000000000000000e+02 3.400000000000000000e+01
-2.189404476636979402e-01 -1.760436991511677096e+00 1.677943567046558337e+00 1.400000000000000000e+02 1.750000000000000000e+02 9.400000000000000000e+01
8.587529095542388580e-02 -1.894959193066771297e+00 1.959380356368645826e+00 1.220000000000000000e+02 1.480000000000000000e+02 1.000000000000000000e+02
-3.916061320049226135e-01 7.039012870935242860e-01 -2.361461745581258376e-01 1.600000000000000000e+01 2.700000000000000000e+01 1.500000000000000000e+01
-7.311478381037130048e-02 -3.610545336827029050e-01 1.772732295007697134e+00 1.420000000000000000e+02 1.800000000000000000e+02 7.200000000000000000e+01
-1.017086000761527664e+00 -9.025890258153914658e-01 2.046769006578968708e-01 1.120000000000000000e+02 1.600000000000000000e+02 9.100000000000000000e+01
-2.354738861319311538e-01 -7.941604443094646415e-01 1.791740136567892216e+00 1.370000000000000000e+02 1.770000000000000000e+02 9.600000000000000000e+01
-1.795354578079092489e+00 2.212678570167995407e+00 3.492873472953264447e+00 1.320000000000000000e+02 1.760000000000000000e+02 3.800000000000000000e+01
-1.079492871932450582e+00 1.172829701342033681e+00 5.098124011168566838e+00 1.510000000000000000e+02 1.880000000000000000e+02 6.600000000000000000e+01
-2.587559537402452925e+00 4.447946240524377259e+00 3.784215513675233122e+00 1.420000000000000000e+02 1.760000000000000000e+02 1.310000000000000000e+02
1.861138115837813745e-01 -1.529444107963383592e+00 2.928650197965056989e+00 1.020000000000000000e+02 1.520000000000000000e+02 8.700000000000000000e+01
-1.089963036452118006e+00 -6.118528005391150604e-01 -6.104111141672255991e-01 5.000000000000000000e+00 2.300000000000000000e+01 2.000000000000000000e+00
2.606217136044815530e-01 -1.737855583962566230e+00 1.001109782773804913e+00 4.800000000000000000e+01 6.300000000000000000e+01 3.400000000000000000e+01
-1.309759806204966237e+00 2.359005274111859229e+00 2.977854355848859047e+00 1.230000000000000000e+02 1.590000000000000000e+02 8.700000000000000000e+01
-1.255435620605204416e+00 1.315403871518427747e+00 1.818112380259125471e+00 1.170000000000000000e+02 1.570000000000000000e+02 7.400000000000000000e+01
-2.458520338201208022e-01 -5.966690048076724873e-01 5.220230909415661813e-01 8.700000000000000000e+01 1.010000000000000000e+02 8.900000000000000000e+01
-1.197931506997034656e+00 1.509940372607915915e+00 6.087007536574486899e+00 1.450000000000000000e+02 1.840000000000000000e+02 6.200000000000000000e+01
-1.329473172681607140e+00 1.093002352663866167e-01 2.676504834715865311e+00 1.420000000000000000e+02 1.680000000000000000e+02 9.900000000000000000e+01
-1.878451298449513196e+00 4.146995450059913324e+00 3.377047279629669774e+00 1.500000000000000000e+02 1.760000000000000000e+02 1.350000000000000000e+02
-2.968838770242863689e-01 -8.252897678823900574e-01 4.266975400556277664e-01 1.330000000000000000e+02 1.590000000000000000e+02 7.000000000000000000e+01
-6.530944066818414884e-01 8.592820130361414899e-01 4.654670642999855446e+00 1.420000000000000000e+02 1.810000000000000000e+02 3.800000000000000000e+01
-2.503460817261821347e+00 4.541850529397757796e+00 3.714400791703355686e+00 1.110000000000000000e+02 1.530000000000000000e+02 1.040000000000000000e+02
-8.548188884678245003e-01 2.447324197602141482e-01 4.310832075194868551e+00 1.280000000000000000e+02 1.700000000000000000e+02 4.700000000000000000e+01
-1.117472799022199537e+00 1.622031856572118957e-01 7.544653266974038486e-01 3.400000000000000000e+01 4.100000000000000000e+01 2.800000000000000000e+01
-9.329463514913685085e-01 -2.677177042731196388e-01 -6.484447021065575800e-01 3.800000000000000000e+01 4.700000000000000000e+01 3.800000000000000000e+01
-1.025163566841045037e+00 -5.898695426000418740e-01 3.066375298231901692e+00 1.480000000000000000e+02 1.860000000000000000e+02 7.500000000000000000e+01
-1.122063696452635595e+00 2.268495610252461159e+00 2.737201608052498791e+00 1.140000000000000000e+02 1.570000000000000000e+02 6.800000000000000000e+01
-1.102943386898009859e+00 7.128121777552279825e-01 3.585085649222161108e-01 1.290000000000000000e+02 1.610000000000000000e+02 1.070000000000000000e+02
-6.785336431237558585e-01 -1.498197223708005232e+00 4.062710096305072738e-01 3.400000000000000000e+01 4.800000000000000000e+01 1.200000000000000000e+01
-6.466527996204562978e-01 4.644167215186316144e-01 3.004472040299148716e-01 1.190000000000000000e+02 1.520000000000000000e+02 9.400000000000000000e+01
-2.229587661386930875e-01 -1.243590215890528761e+00 1.791660985474576306e-01 1.400000000000000000e+02 1.750000000000000000e+02 4.600000000000000000e+01
-1.107600757308948358e+00 1.916993565511416087e+00 3.067070584165060509e+00 1.210000000000000000e+02 1.690000000000000000e+02 4.900000000000000000e+01
-2.484028647574878512e+00 1.204122607414961799e+00 1.723180494157315668e+00 1.050000000000000000e+02 1.320000000000000000e+02 9.300000000000000000e+01
-5.198247651476588516e-01 -5.294462734138307702e-01 2.816512611772441055e+00 1.410000000000000000e+02 1.880000000000000000e+02 6.300000000000000000e+01
-9.111880563447781745e-01 -7.285915767526969511e-02 4.196475685241770393e+00 1.390000000000000000e+02 1.790000000000000000e+02 3.100000000000000000e+01
-1.538176057650154194e+00 2.559676588014816900e+00 2.627576754130117820e+00 8.800000000000000000e+01 1.250000000000000000e+02 6.800000000000000000e+01
-7.517941046151881412e-01 -3.275223994899615354e-01 -7.046143974347615635e-02 2.000000000000000000e+01 2.000000000000000000e+01 2.800000000000000000e+01
-1.072105472294448303e+00 1.724077718572371909e+00 6.360024236342121107e+00 1.380000000000000000e+02 1.700000000000000000e+02 7.800000000000000000e+01
-1.232041339636860577e+00 1.952233224390814481e+00 2.238830997362010411e+00 1.150000000000000000e+02 1.570000000000000000e+02 7.900000000000000000e+01
1.214957220771682549e-02 3.307687468716294932e-01 -1.791902486101320819e-03 5.700000000000000000e+01 8.300000000000000000e+01 5.100000000000000000e+01
-2.805602760651094929e+00 4.630944050736242268e+00 3.862869560640290079e+00 1.090000000000000000e+02 1.560000000000000000e+02 8.900000000000000000e+01
-2.160468359366317648e-01 -1.794776879632008049e+00 1.575757200464130703e+00 1.240000000000000000e+02 1.560000000000000000e+02 1.010000000000000000e+02
-2.321099512641888740e-01 -8.048146424920877839e-01 2.364429496124481389e+00 1.410000000000000000e+02 1.810000000000000000e+02 7.900000000000000000e+01
-1.664753612283114581e+00 1.588476805283277171e+00 2.096819167157770281e+00 1.280000000000000000e+02 1.560000000000000000e+02 7.800000000000000000e+01
-2.784943628401458149e+00 3.691988086145890691e+00 3.707499046877338333e+00 1.340000000000000000e+02 1.730000000000000000e+02 1.150000000000000000e+02
-1.015664738748969897e+00 1.865036407697207910e+00 6.558118944945594109e+00 1.400000000000000000e+02 1.680000000000000000e+02 8.300000000000000000e+01
-7.640535984733244357e-01 2.111974819086984034e+00 6.205885831437127464e+00 1.220000000000000000e+02 1.720000000000000000e+02 6.300000000000000000e+01
-3.798834342679647258e-01 5.742716577251385512e-01 3.815237461941749952e+00 1.140000000000000000e+02 1.730000000000000000e+02 3.500000000000000000e+01
-5.438427395770155659e-01 6.052807134498726371e-02 4.080767079404250097e+00 1.320000000000000000e+02 1.750000000000000000e+02 4.200000000000000000e+01
-2.249549095377503694e+00 7.690637581461071681e-01 5.655890347424080034e+00 1.480000000000000000e+02 1.810000000000000000e+02 7.100000000000000000e+01
-2.968053906607753589e+00 5.811158578568645261e+00 3.803108340896986572e+00 1.440000000000000000e+02 1.630000000000000000e+02 1.300000000000000000e+02
-6.025431524052602406e-01 2.322778893526316946e+00 2.424770987462502081e+00 6.200000000000000000e+01 8.300000000000000000e+01 4.700000000000000000e+01
-3.187917149341104484e+00 5.183332133189439972e+00 3.788371870799255969e+00 1.110000000000000000e+02 1.530000000000000000e+02 9.600000000000000000e+01
-2.620733816448949316e+00 4.398141386686527099e+00 3.808144017617123733e+00 1.180000000000000000e+02 1.590000000000000000e+02 1.000000000000000000e+02
-2.522016240500281614e-01 8.818122792760593187e-01 8.135312605075485370e-01 4.500000000000000000e+01 7.600000000000000000e+01 3.900000000000000000e+01
-1.490666665929332169e+00 2.611045835202275178e+00 7.001199126296750563e+00 1.180000000000000000e+02 1.690000000000000000e+02 8.800000000000000000e+01
-1.598384629830790660e+00 1.150314739969804378e+00 2.075227000855193626e+00 3.100000000000000000e+01 4.100000000000000000e+01 2.600000000000000000e+01
4.214726833772705072e-01 -6.615860887084408226e-01 3.082648017877011259e+00 1.350000000000000000e+02 1.790000000000000000e+02 2.600000000000000000e+01
-1.842388527167594825e+00 9.262491450985029795e-01 5.679627151867359558e+00 1.380000000000000000e+02 1.790000000000000000e+02 4.700000000000000000e+01
-4.497390585657486395e-01 -9.607833058650765423e-01 1.321418604109053874e+00 1.330000000000000000e+02 1.710000000000000000e+02 2.900000000000000000e+01
-6.790959830959097943e-01 8.105354197693386276e-01 5.246329595349230601e-01 1.350000000000000000e+02 1.700000000000000000e+02 1.090000000000000000e+02
-2.318842379703133449e+00 1.599514456070363355e+00 6.594194474751190249e+00 1.280000000000000000e+02 1.660000000000000000e+02 4.000000000000000000e+01
-1.233421672519891210e+00 -2.747932437788048188e-01 3.572394054187137513e+00 1.500000000000000000e+02 1.860000000000000000e+02 8.400000000000000000e+01
-1.758228453538103864e+00 2.281905381513122943e+00 3.202413324975043274e+00 1.310000000000000000e+02 1.750000000000000000e+02 3.800000000000000000e+01
-2.196032663705331345e+00 1.302316172569748742e+00 6.770694470708075841e+00 1.440000000000000000e+02 1.690000000000000000e+02 4.400000000000000000e+01
-1.842388527167594825e+00 9.262491450985029795e-01 5.679627151867359558e+00 1.380000000000000000e+02 1.790000000000000000e+02 4.700000000000000000e+01
-1.201699318828571617e+00 -4.773715013099268933e-01 6.255820977677487571e-01 6.200000000000000000e+01 8.600000000000000000e+01 5.600000000000000000e+01
-9.123230020759941494e-01 2.207489496323900457e+00 2.657962196804702693e+00 1.060000000000000000e+02 1.470000000000000000e+02 8.400000000000000000e+01
-8.784585565879828861e-01 -2.248708024548799200e-01 1.842360410168987217e+00 1.280000000000000000e+02 1.670000000000000000e+02 1.060000000000000000e+02
-3.423812817255772245e+00 6.086429838127402014e+00 3.778993203340887064e+00 3.000000000000000000e+01 3.500000000000000000e+01 3.800000000000000000e+01
-1.416659777195548253e+00 1.298706823746570649e+00 3.469300251009987512e+00 1.340000000000000000e+02 1.770000000000000000e+02 4.000000000000000000e+01
-1.236632263870917736e+00 2.832133601368793108e-01 7.023036572536656141e-01 1.310000000000000000e+02 1.640000000000000000e+02 9.300000000000000000e+01
-7.516611854578042484e-01 2.375436456765327442e+00 2.744264362230885546e+00 1.080000000000000000e+02 1.500000000000000000e+02 8.100000000000000000e+01
1.587574461376577428e-01 1.050526091319170074e+00 3.457761479721501163e-01 1.200000000000000000e+02 1.680000000000000000e+02 7.200000000000000000e+01
-3.247650252085800382e+00 4.696571752241478492e+00 3.942108971888086177e+00 1.200000000000000000e+02 1.370000000000000000e+02 8.600000000000000000e+01
1.679407688049367429e-03 -3.755430166773655043e-01 1.950426017037025117e+00 1.460000000000000000e+02 1.840000000000000000e+02 6.000000000000000000e+01
-3.407279351983917515e+00 5.120153290925189893e+00 3.665196633819553629e+00 1.320000000000000000e+02 1.710000000000000000e+02 1.080000000000000000e+02
2.516034744399907042e-01 -1.472502361130989090e+00 2.513061874365040360e+00 1.300000000000000000e+02 1.760000000000000000e+02 5.100000000000000000e+01
-4.100311824300108543e-01 8.559742853619934921e-01 4.776462973948895296e+00 1.400000000000000000e+02 1.810000000000000000e+02 3.500000000000000000e+01
-3.474875323802556704e+00 5.496665097686136647e+00 3.626184016813353672e+00 1.250000000000000000e+02 1.660000000000000000e+02 1.000000000000000000e+02
-2.853199076515372301e+00 4.394869441846640967e+00 3.583183744674776960e+00 1.560000000000000000e+02 1.890000000000000000e+02 1.420000000000000000e+02
-4.406619854527888541e-02 -3.385651429650700095e-01 1.790382801191825690e+00 1.430000000000000000e+02 1.810000000000000000e+02 7.000000000000000000e+01
-1.209342344601675556e+00 -3.222924233199607746e-01 3.263884642552635995e+00 1.190000000000000000e+02 1.430000000000000000e+02 7.200000000000000000e+01
-1.104579345916141930e+00 9.120749613656836674e-02 1.388342287501498129e+00 1.500000000000000000e+01 1.500000000000000000e+01 1.800000000000000000e+01
-1.505385231208121066e+00 2.590494051455425328e+00 2.910784967971732584e+00 1.260000000000000000e+02 1.610000000000000000e+02 9.500000000000000000e+01
-1.602346714308570563e+00 2.748906427774136407e+00 3.244991815330882989e+00 9.600000000000000000e+01 1.460000000000000000e+02 3.300000000000000000e+01
-2.075840482136540377e+00 1.772834524018840785e+00 6.632253633345118082e+00 1.340000000000000000e+02 1.740000000000000000e+02 4.600000000000000000e+01
-1.784035757305929337e+00 2.781840412356840098e+00 2.749185051416201730e+00 1.250000000000000000e+02 1.650000000000000000e+02 1.010000000000000000e+02
1.951627408945122433e-01 -5.347273640894033564e-01 1.505405682371073972e+00 1.490000000000000000e+02 1.830000000000000000e+02 6.700000000000000000e+01
1.023522488331269242e+00 -4.127100703478812638e-01 3.845201149637219373e+00 1.500000000000000000e+02 1.810000000000000000e+02 1.010000000000000000e+02
-7.866605766770315977e-01 9.755325344864842485e-01 9.620051489361268748e-01 1.290000000000000000e+02 1.620000000000000000e+02 1.090000000000000000e+02
-1.138034794948714845e+00 -6.919741045306579963e-01 1.829397964542037069e+00 1.360000000000000000e+02 1.780000000000000000e+02 1.000000000000000000e+02
-3.861665515173696717e-01 -1.180089274510674358e+00 1.543227092845221637e+00 1.270000000000000000e+02 1.650000000000000000e+02 8.000000000000000000e+01
-4.252763048466911555e-01 -1.888210845364712398e+00 6.745536538270343607e-01 3.000000000000000000e+01 5.200000000000000000e+01 8.000000000000000000e+00
-2.551565892659533041e-01 -1.657818711377710141e-01 2.482326215576243555e+00 1.150000000000000000e+02 1.680000000000000000e+02 5.800000000000000000e+01
-1.878451298449513196e+00 4.146995450059913324e+00 3.377047279629669774e+00 1.500000000000000000e+02 1.760000000000000000e+02 1.350000000000000000e+02
-1.715217325932953370e-03 -1.804776721010999507e+00 2.129819597917355534e+00 1.360000000000000000e+02 1.770000000000000000e+02 1.060000000000000000e+02
-6.807319689176632993e-01 -8.898080675073858359e-01 2.364028192308318843e+00 1.570000000000000000e+02 1.870000000000000000e+02 3.300000000000000000e+01
-2.087514531301074283e-01 -8.885861976327144029e-01 1.740818268621388831e-01 1.380000000000000000e+02 1.670000000000000000e+02 6.900000000000000000e+01
2.722268238553650632e-01 -1.514050707914388783e+00 6.498582714798394333e-01 1.110000000000000000e+02 1.400000000000000000e+02 8.800000000000000000e+01
-1.262725857116463901e+00 7.688592465165775547e-01 1.538211840484416282e+00 1.500000000000000000e+01 1.500000000000000000e+01 1.900000000000000000e+01
-1.078138082900395256e+00 -3.771431928612352658e-01 2.741398894306048550e+00 1.090000000000000000e+02 1.380000000000000000e+02 7.100000000000000000e+01
-1.026451882892597922e+00 -1.373817994868951953e+00 2.890808336327956418e+00 1.590000000000000000e+02 1.900000000000000000e+02 3.500000000000000000e+01
-1.664753612283114581e+00 1.588476805283277171e+00 2.096819167157770281e+00 1.280000000000000000e+02 1.560000000000000000e+02 7.800000000000000000e+01
-8.363325113574985314e-01 1.354043301707072988e+00 5.361135776869187630e+00 1.490000000000000000e+02 1.910000000000000000e+02 4.900000000000000000e+01
-6.168169115907271571e-01 -5.523548459629467056e-01 2.252452946087856844e+00 1.390000000000000000e+02 1.810000000000000000e+02 8.000000000000000000e+01
-1.207517232428944265e+00 -2.305711285691779688e-01 2.485265849120859016e+00 1.480000000000000000e+02 1.800000000000000000e+02 1.140000000000000000e+02
5.770681331290833382e-01 -1.826882659124169361e+00 3.511132340927096696e+00 1.210000000000000000e+02 1.630000000000000000e+02 6.200000000000000000e+01
-3.186319599912109113e-01 -1.739614249958416625e+00 3.180079850921758045e+00 1.240000000000000000e+02 1.640000000000000000e+02 8.700000000000000000e+01
-1.237682939017174383e-01 6.876848014456304892e-01 3.955079083350690805e+00 1.270000000000000000e+02 1.750000000000000000e+02 6.200000000000000000e+01
-8.106478877637695035e-01 -5.902887512351461252e-01 1.349288768169392139e+00 1.240000000000000000e+02 1.660000000000000000e+02 1.030000000000000000e+02
-1.263702339839321009e+00 1.805259802675352465e-01 9.717774811786241695e-01 2.700000000000000000e+01 2.800000000000000000e+01 3.000000000000000000e+01
-2.442843275429367633e+00 3.634586228352486348e+00 3.923430868475528133e+00 1.120000000000000000e+02 1.420000000000000000e+02 5.800000000000000000e+01
-7.367943693503222757e-01 2.404065833395315543e+00 2.824482802545549731e+00 1.070000000000000000e+02 1.510000000000000000e+02 8.000000000000000000e+01
3.347308581530304417e-01 -1.787113429499572526e+00 1.036019703505565603e+00 4.200000000000000000e+01 5.700000000000000000e+01 2.700000000000000000e+01
-1.226376823160445939e+00 6.187903013957729570e-01 9.637510296046786218e-01 4.400000000000000000e+01 6.600000000000000000e+01 3.900000000000000000e+01
1.054301676200846555e-01 -1.091343396138769739e+00 2.917510371774069688e-01 1.100000000000000000e+02 1.550000000000000000e+02 9.700000000000000000e+01
3.337621752839340511e-02 -3.999853460370911273e-01 6.589276251499021075e-01 1.030000000000000000e+02 1.400000000000000000e+02 1.090000000000000000e+02
-2.445517043855594430e+00 1.342898302417199652e+00 1.718282829282584911e+00 1.170000000000000000e+02 1.550000000000000000e+02 1.080000000000000000e+02
-1.924708156953044869e+00 1.282204048620956272e+00 1.550202949683774145e+00 1.020000000000000000e+02 1.400000000000000000e+02 7.900000000000000000e+01
-1.096501779836624557e+00 -4.015088370607926005e-01 3.602592916854755245e+00 1.490000000000000000e+02 1.880000000000000000e+02 7.600000000000000000e+01
-7.416664635704565134e-01 -1.077074729641325002e+00 2.514646718877600495e+00 1.720000000000000000e+02 1.970000000000000000e+02 2.700000000000000000e+01
2.089968670855431587e-01 -1.277444422395252799e+00 2.617017119122984070e+00 9.600000000000000000e+01 1.410000000000000000e+02 3.400000000000000000e+01
-7.598716706947056254e-01 -1.812644682772964755e+00 2.728789184333700213e+00 1.190000000000000000e+02 1.610000000000000000e+02 8.400000000000000000e+01
-2.302308914431279163e+00 3.150356457690080436e+00 3.179701544612560049e+00 1.300000000000000000e+02 1.620000000000000000e+02 1.140000000000000000e+02
-4.792937766094007568e-01 1.148832151272008995e+00 1.505868339676095458e+00 1.130000000000000000e+02 1.560000000000000000e+02 7.600000000000000000e+01
-1.187522695966225950e+00 1.134323217114393101e+00 5.701405898176903797e+00 1.470000000000000000e+02 1.880000000000000000e+02 5.000000000000000000e+01
-6.018478664721014226e-01 2.002546784154857207e-01 -4.847308911638060352e-02 1.020000000000000000e+02 1.290000000000000000e+02 7.000000000000000000e+01
-1.813779628504180730e+00 1.106378914237897915e+00 5.920676083988238858e+00 1.340000000000000000e+02 1.740000000000000000e+02 4.600000000000000000e+01
-1.388173585509852037e+00 1.292812251789650979e+00 1.830072799312242982e+00 1.150000000000000000e+02 1.530000000000000000e+02 6.500000000000000000e+01
-2.176482906532314132e+00 2.645206809151293914e+00 6.815862378494319529e+00 1.440000000000000000e+02 1.640000000000000000e+02 1.010000000000000000e+02
-2.140512152081873509e+00 8.583208887882152194e-01 1.410149150809649088e+00 1.120000000000000000e+02 1.430000000000000000e+02 8.600000000000000000e+01
9.757241803778524125e-02 6.708445955331027166e-01 1.302175667987573726e-01 1.300000000000000000e+01 2.000000000000000000e+01 1.700000000000000000e+01
4.049647887600126284e-01 -1.131997064851124390e+00 3.191477930002721841e+00 1.290000000000000000e+02 1.810000000000000000e+02 2.400000000000000000e+01
-8.304225809256483570e-01 2.370503009056334154e+00 2.833112523221176904e+00 1.090000000000000000e+02 1.540000000000000000e+02 8.900000000000000000e+01
-1.071632629613382265e-01 -1.174317382727851689e+00 3.053011521985168120e+00 1.270000000000000000e+02 1.780000000000000000e+02 5.200000000000000000e+01
-1.619038642588783938e+00 -6.820687995235344414e-02 3.849725600890774757e+00 6.000000000000000000e+00 2.200000000000000000e+01 0.000000000000000000e+00
-4.902342642697443686e-01 2.390218814662501967e-01 3.623998476346744102e+00 1.400000000000000000e+02 1.790000000000000000e+02 2.600000000000000000e+01
-6.543878422250378746e-01 2.412634173778462454e+00 2.019190144273510068e+00 2.100000000000000000e+01 2.900000000000000000e+01 2.500000000000000000e+01
6.760873034231593137e-02 -8.358877320677976508e-01 2.993012580925705102e+00 1.090000000000000000e+02 1.590000000000000000e+02 3.600000000000000000e+01
-3.496999032716562317e-01 -1.503585662886365082e+00 2.954600686677174570e-01 1.500000000000000000e+02 1.820000000000000000e+02 4.000000000000000000e+01
-1.405085330287283440e+00 1.521003567245977406e+00 1.378994283385748476e+00 3.000000000000000000e+00 1.700000000000000000e+01 4.000000000000000000e+00
-1.364907104207248478e+00 1.383971179764658777e+00 2.052088346021951448e+00 1.160000000000000000e+02 1.510000000000000000e+02 7.800000000000000000e+01
-4.582486454112898178e-02 -2.045120155019053865e+00 9.087213190884708691e-01 4.400000000000000000e+01 5.300000000000000000e+01 2.300000000000000000e+01
-2.092343257262154754e+00 5.835046206988251383e-01 1.633915697679553247e+00 2.800000000000000000e+01 5.400000000000000000e+01 2.300000000000000000e+01
-7.542071542182910981e-01 2.067609545736686538e+00 2.481835414468993140e+00 1.090000000000000000e+02 1.540000000000000000e+02 8.800000000000000000e+01
7.581385753534519711e-01 -2.733720085698682079e-01 4.010341422495035779e+00 1.340000000000000000e+02 1.780000000000000000e+02 3.000000000000000000e+01
-2.196561847598097750e-01 7.202200285561830562e-01 7.305623666064892108e-01 9.400000000000000000e+01 1.270000000000000000e+02 7.600000000000000000e+01
4.791352867974205121e-01 1.159230750123151577e+00 9.424689275918007175e-03 1.200000000000000000e+02 1.630000000000000000e+02 1.020000000000000000e+02
-4.104478715247250609e-02 -9.059785313377303195e-01 2.696463561540699772e+00 1.300000000000000000e+02 1.740000000000000000e+02 9.400000000000000000e+01
-3.433342308690466194e+00 5.247850432814435528e+00 3.686581742148589580e+00 1.350000000000000000e+02 1.740000000000000000e+02 1.110000000000000000e+02
-1.084017349989626400e+00 1.484664718666004024e+00 2.026209449781979810e+00 1.150000000000000000e+02 1.540000000000000000e+02 7.100000000000000000e+01
-1.239771262749798542e+00 1.563329004614347983e+00 2.182328910327672844e+00 1.170000000000000000e+02 1.550000000000000000e+02 6.300000000000000000e+01
-6.586311234925157354e-01 1.120550444412221180e+00 9.900542539713981238e-01 1.200000000000000000e+02 1.570000000000000000e+02 8.900000000000000000e+01
-2.137398697053968011e+00 1.374170757327174863e+00 6.723824104119575651e+00 1.310000000000000000e+02 1.650000000000000000e+02 3.800000000000000000e+01
-4.609965258500527407e-01 2.710918781241489772e-01 1.370502601359149031e+00 9.000000000000000000e+00 3.300000000000000000e+01 1.400000000000000000e+01
-1.744455680835931943e+00 2.075451936844055378e+00 2.548715649191520161e+00 1.170000000000000000e+02 1.550000000000000000e+02 8.300000000000000000e+01
-1.488059343679986490e+00 2.023331169726223067e+00 2.240206210753397542e+00 1.230000000000000000e+02 1.550000000000000000e+02 1.050000000000000000e+02
-7.126127856173417596e-01 -1.054585338923692328e+00 2.532299771405740252e+00 1.720000000000000000e+02 1.960000000000000000e+02 2.300000000000000000e+01
-5.923234945290508646e-01 1.578108896578374498e+00 1.756733079513010054e+00 1.220000000000000000e+02 1.510000000000000000e+02 1.020000000000000000e+02
-1.028747345009626724e+00 8.480705407657658235e-01 5.346404399459478984e-01 1.140000000000000000e+02 1.460000000000000000e+02 1.020000000000000000e+02
-1.480799770511345814e+00 2.208547783698569411e+00 6.697779079035589334e+00 1.230000000000000000e+02 1.740000000000000000e+02 8.100000000000000000e+01
-3.840602693585613570e-01 -7.146219582566498696e-01 2.029057039691496644e+00 1.420000000000000000e+02 1.830000000000000000e+02 8.000000000000000000e+01
-3.233864667252708824e-01 1.791456473845046415e-01 1.543487838471966578e+00 1.500000000000000000e+01 3.900000000000000000e+01 2.000000000000000000e+01
-6.280820179070648046e-02 1.056461592405616656e+00 4.675710520688217686e-01 1.500000000000000000e+01 1.900000000000000000e+01 2.200000000000000000e+01
1.218102357679811121e-01 6.312440679001520838e-01 4.666585495896984070e-02 1.000000000000000000e+01 1.600000000000000000e+01 1.600000000000000000e+01
-2.133180986441086446e+00 -9.307480256974612898e-01 1.653854000145055680e+00 9.600000000000000000e+01 1.210000000000000000e+02 7.800000000000000000e+01
-5.952171062561170123e-01 8.933458238584179867e-01 9.869075892568626163e-01 1.270000000000000000e+02 1.600000000000000000e+02 1.070000000000000000e+02
-3.774652919768393677e-01 3.364281706600215638e-01 3.878968458802109609e+00 1.400000000000000000e+02 1.810000000000000000e+02 2.400000000000000000e+01
-1.238549392875126998e+00 -7.121373429850220704e-01 4.676886395548960906e-01 1.290000000000000000e+02 1.630000000000000000e+02 1.160000000000000000e+02
-1.010828427363098081e+00 1.569177554753718118e+00 5.844795514920162915e+00 1.300000000000000000e+02 1.760000000000000000e+02 7.200000000000000000e+01
-8.074986499016018060e-01 -9.714886185532715102e-01 -9.951769084422328049e-02 1.090000000000000000e+02 1.610000000000000000e+02 9.100000000000000000e+01
-2.056444095283859852e+00 1.489996950650769980e+00 1.314074653140969051e+00 1.160000000000000000e+02 1.500000000000000000e+02 6.100000000000000000e+01
4.286095763718146268e-01 -1.229349693195312815e-01 3.137585711561741153e+00 1.600000000000000000e+02 1.890000000000000000e+02 3.900000000000000000e+01
