-0.797272 1.484522 1.902688
-1.158264 2.380750 2.877288
-1.680607 1.510523 1.968113
-1.664754 1.588477 2.096819
-0.975520 -0.026110 -1.133211
-0.355349 -0.109588 -0.953481
-1.421831 2.476945 2.894405
-1.071604 1.389994 1.985213
-0.735095 1.350846 1.826348
0.045981 0.054202 0.059585
-0.932854 0.006713 -0.927619
-1.710916 2.098863 3.051878
-1.567952 2.285049 3.431097
-0.889074 -0.129039 -1.461971
-1.585918 1.867000 2.976850
-0.384142 1.169179 1.558628
-0.766637 1.892224 2.290457
-1.096471 2.117113 2.040946
-1.820531 2.385174 3.377299
-0.940183 0.132761 -0.805575
-1.073649 0.927716 0.742341
-0.150037 -0.003733 -0.367483
-0.561155 0.508554 0.244682
-0.730032 2.144692 2.594806
-1.766700 2.574981 3.384138
-0.240351 -0.140164 -0.915563
-0.147831 -0.102547 -0.535403
-1.154560 1.353642 1.829252
-0.524037 -0.022001 -0.646277
-0.962623 1.691956 2.070543
-1.534487 1.082080 1.492333
-0.754207 2.067610 2.481835
0.016587 -0.165404 -1.306248
-0.999980 1.036094 1.000642
-0.658631 1.120550 0.990054
-0.595846 1.401047 1.799874
-1.488755 1.808739 2.938210
-1.427979 1.269014 1.690627
-0.506272 -0.027707 -0.668242
-0.299956 -0.081256 -0.563122
-0.183317 -0.148947 -0.715908
-1.376415 2.243609 2.575788
-1.784682 2.210046 3.502190
-0.072992 -0.174846 -0.582150
-1.713406 2.198563 3.172076
-0.269241 -0.154754 -0.708260
-1.730279 1.979400 2.906543
-1.279045 2.285504 2.832716
-0.969040 1.512962 2.036212
0.179038 0.272401 -0.343248
-1.117851 1.042137 1.092821
-0.749432 0.959592 1.015154
-1.394600 1.149584 1.395714
-0.524252 0.686008 0.757822
-0.856327 2.506094 3.079453
-0.918202 2.271461 1.880325
-1.500794 2.012306 2.251680
-0.970172 0.557181 0.808809
-1.605316 2.150063 3.001084
-0.606326 -0.025025 -0.107028
-0.235914 0.622042 0.364781
-0.638105 0.534845 0.667205
-0.692664 0.398045 0.601891
-0.022633 -0.114690 0.246485
-0.543086 1.117353 1.525482
-1.805825 2.045826 2.922725
-0.607617 1.096821 1.566863
-1.479695 2.443815 3.196537
-1.321677 1.400315 2.007181
-1.125913 2.254618 2.737691
-1.073729 1.912132 1.923506
-1.784036 2.781840 2.749185
-1.297468 2.347899 2.971773
-2.006731 2.910642 2.951595
-0.945317 1.207846 1.491818
-0.933325 1.870594 2.274715
-0.971224 0.923979 0.876557
-0.149164 0.309795 0.043366
-1.610995 1.954624 2.435936
-1.676108 2.456008 2.845472
-1.246223 1.239275 1.429382
-1.323410 0.953836 1.214222
-1.577886 2.335117 3.220991
-0.535433 0.303811 0.016155
-0.191819 0.142529 -0.155659
-0.200485 0.426110 0.179631
-1.047045 1.545998 1.510789
-1.107601 1.916994 3.067071
-0.602919 0.865593 0.987887
-0.415002 0.007133 -0.376601
-0.245975 0.655502 0.385770
-1.391494 1.952815 3.206322
-0.182719 0.060855 -0.278340
-1.877102 2.237382 2.701895
-0.837856 0.558439 0.612978
-1.096062 2.497244 1.791290
-0.398193 0.642343 0.511878
-0.943355 1.456191 1.901570
-1.556346 1.722932 3.246153
-0.488860 0.173509 -0.129770
-1.403582 1.237302 1.832033
-1.336186 0.940456 0.734693
-0.983737 1.708914 2.215440
-1.385536 1.605337 3.074509
-1.128130 2.502766 1.978202
-0.250791 0.593412 0.284568
0.063156 0.018985 0.044808
-0.802693 1.787269 2.212935
-1.719919 1.960975 2.465945
-1.183525 2.234171 2.129209
-1.558874 2.552788 2.905685
-0.776219 1.949792 2.362293
0.268802 0.471063 0.055876
-0.803399 1.571918 2.041412
-1.048867 2.604902 1.990558
-0.990486 1.333710 1.876358
-0.970213 1.274307 1.624579
-1.038415 2.339468 2.862040
-1.435604 1.874390 3.096487
-1.102943 0.712812 0.358509
-1.592859 2.596730 2.611546
-1.101957 1.661451 2.230482
-0.647379 0.787596 0.972194
-0.846956 0.999663 1.171662
-0.784708 1.702741 2.079270
-1.560466 2.157933 2.940775
-0.796118 2.297442 2.728572
-1.171950 1.318291 1.708412
-1.522251 1.922121 2.919485
-1.337898 0.944183 0.826872
-1.576187 2.086633 2.492819
-1.452876 2.174264 3.401674
-1.328185 1.792164 2.883293
-1.110121 1.970316 2.862123
-0.955022 0.779825 0.876682
-1.156501 1.495748 2.052948
-0.570877 0.319169 0.172563
-1.414206 0.163635 1.005703
-0.356756 0.298919 0.010662
-1.768699 2.294814 3.203198
-0.731339 1.330025 1.689844
-0.952662 2.156808 2.600692
-0.986876 1.964557 2.396075
-1.232011 2.133559 3.137097
-0.040355 0.207629 -0.087896
-0.315554 0.932389 0.900418
-1.687453 2.604441 2.722115
-1.145233 0.923662 0.912379
-0.332954 0.057407 -0.285499
-1.236632 0.283213 0.702304
-0.662833 1.688254 2.061846
-1.776275 2.453145 3.672730
-1.204562 1.536131 1.688483
-1.640577 2.264774 3.642324
-1.161368 0.472228 0.714080
-1.919361 2.809371 3.313247
-1.234495 2.548025 2.989628
-1.386630 2.089353 3.212605
-1.750809 2.355377 2.798593
-1.157055 1.947236 2.262954
-0.398530 0.140038 -0.155797
-1.207843 2.270077 2.390124
-1.707138 2.064261 2.525081
-1.174427 2.062589 2.426921
-0.440184 1.137861 1.502538
-0.561716 1.499066 1.877640
-1.185969 2.111366 2.587681
-0.679096 0.810535 0.524633
-1.399175 1.638363 3.054898
-1.069810 1.839669 2.021125
-0.955083 0.237355 -0.079068
-0.380921 0.702020 0.642696
-0.366550 0.525593 0.208564
-1.116910 1.988424 2.473794
-1.226070 2.252601 2.316902
-0.542836 0.291092 -0.402478
-1.439645 1.940935 2.830150
-1.197456 1.593751 2.246464
-0.830423 2.370503 2.833113
-0.801527 0.946898 0.881789
-0.357374 0.627645 0.416365
-0.810203 1.049908 1.188336
-1.038021 1.100827 0.839627
-1.204312 1.009448 1.182651
-0.949769 2.122473 2.498508
-1.788095 2.398074 3.715290
-0.567104 -0.030452 -0.376410
-0.527463 0.704556 0.410093
-1.237573 2.213318 2.809373
-1.739108 2.164418 2.567741
-1.549781 2.335872 2.978831
-1.202359 2.186120 2.315524
-1.043839 2.246553 2.730530
-1.299167 0.914230 1.130673
